# .PCD v0.7 - Point Cloud Data file format
VERSION 0.7
FIELDS x y z rgb
SIZE 4 4 4 4
TYPE F F F U
COUNT 1 1 1 1
WIDTH 569
HEIGHT 1
VIEWPOINT 0 0 0 1 0 0 0
POINTS 569
DATA ascii
0.54242009 -0.38022763 0.33139759 10462377
0.54821998 -0.37655723 0.32817754 5198420
0.5275721 -0.39452267 0.32086614 10462377
0.53289568 -0.39238527 0.32204986 10462377
0.54394251 -0.36513782 0.31040725 5198421
0.53970462 -0.38280034 0.31880718 5198421
0.51717126 -0.40754369 0.31087977 10462377
0.52249765 -0.40299082 0.31415856 10462377
0.54176593 -0.35931671 0.30135623 5198421
0.53750831 -0.37722635 0.30993554 5198421
0.52270758 -0.39526188 0.30010319 5198421
0.50730497 -0.4177011 0.30331039 10462377
0.51385468 -0.41293544 0.30661979 10462377
0.52693397 -0.38740772 0.29729706 2303529
0.51538479 -0.40417296 0.29522747 5198421
0.49845219 -0.42755398 0.29587746 10462377
0.50330734 -0.42450818 0.29690099 9804190
0.5238803 -0.3750577 0.28022289 855567
0.51974249 -0.39308333 0.28912482 855567
0.49971145 -0.41919696 0.2811543 5198421
0.48687252 -0.4378297 0.28842112 10462377
0.49301884 -0.43548945 0.28750986 9541275
0.52164149 -0.36906207 0.27090624 855567
0.51637566 -0.38434118 0.27536023 855567
0.50271273 -0.40557504 0.27039531 855567
0.49131235 -0.42534828 0.27190623 5263957
0.47752777 -0.44894007 0.27688482 8685709
0.482003 -0.44885874 0.27946645 10462377
0.46679404 -0.46021581 0.27152908 10462377
0.52588773 -0.3503511 0.26157978 855567
0.51295197 -0.37545121 0.26136291 855567
0.50037402 -0.39985716 0.26115224 855567
0.49421459 -0.41180861 0.26104894 855567
0.48333213 -0.43302736 0.26300645 1776927
0.47130713 -0.45386791 0.26233736 5263957
0.45612884 -0.47238979 0.26231086 10462377
0.46106723 -0.47158337 0.26238859 10462377
0.52361703 -0.34407437 0.25195497 855567
0.51063061 -0.36942363 0.25187269 855567
0.50427395 -0.38183177 0.25183237 855567
0.49182421 -0.40613329 0.25175351 855567
0.47971395 -0.42977238 0.25167674 855567
0.46887457 -0.44911116 0.25208235 3750975
0.47397527 -0.44229564 0.25449571 1776927
0.44551712 -0.48451608 0.25312725 10462377
0.45175439 -0.4812755 0.25424251 7830399
0.52131659 -0.33771658 0.24220482 855567
0.51475149 -0.35060906 0.24223277 855567
0.50189888 -0.37584901 0.24228773 855567
0.48328575 -0.4124012 0.24236721 855567
0.47129974 -0.43593943 0.24241838 855567
0.45962203 -0.45825124 0.24364786 1513755
0.46429259 -0.45352614 0.24782299 2303529
0.44921422 -0.47682321 0.2440972 5264213
0.4352951 -0.49609017 0.24437374 10462377
0.44215566 -0.49141681 0.24756411 10462377
0.51239491 -0.34429789 0.23242602 855567
0.49949324 -0.36978936 0.23262048 855567
0.49317881 -0.38226557 0.2327157 855567
0.48081335 -0.40669775 0.23290199 855567
0.46289641 -0.44209874 0.23317197 855567
0.44993356 -0.46830428 0.23680979 2237479
0.45219314 -0.46523964 0.23606798 1579548
0.44103074 -0.48280537 0.23507613 5264213
0.42559904 -0.50649095 0.23657173 10462377
0.43097952 -0.50266445 0.23821114 8685965
0.52333927 -0.31139898 0.22214308 855567
0.51000738 -0.3379041 0.22249067 855567
0.50348544 -0.35087037 0.22266072 855567
0.4907189 -0.37625134 0.22299349 855567
0.47223419 -0.4130007 0.22347543 855567
0.46033308 -0.43666112 0.22378573 855567
0.44875363 -0.45968211 0.22408757 855567
0.44170564 -0.47491634 0.22654349 1579548
0.42746097 -0.49942553 0.22613737 5264213
0.41526961 -0.51823699 0.22768253 10462377
0.52097374 -0.30464745 0.21192521 855567
0.50104129 -0.34452379 0.21266812 855567
0.48195639 -0.38270462 0.21337965 855567
0.46967781 -0.407269 0.21383733 855567
0.45189026 -0.4428544 0.21450034 855567
0.44043243 -0.46577644 0.21492735 855567
0.42927986 -0.48808825 0.21534306 855568
0.41883057 -0.50389081 0.21418728 3750975
0.40887552 -0.52614546 0.21744946 5264213
0.39330733 -0.5406608 0.21099484 10462377
0.51857638 -0.29780447 0.2015695 855567
0.5118072 -0.31143296 0.20189911 855567
0.49856484 -0.33809388 0.20254391 855567
0.49208742 -0.35113478 0.20285934 855567
0.47940984 -0.37665856 0.20347664 855567
0.46105754 -0.41360712 0.20437014 855567
0.44924408 -0.43739116 0.20494533 855567
0.43212187 -0.47186327 0.20577902 855568
0.42108706 -0.49407971 0.20631626 855568
0.40743026 -0.51407725 0.20245363 2237736
0.41160321 -0.51067877 0.20679529 3750975
0.40088785 -0.53197217 0.20863318 5264213
0.3786642 -0.55355728 0.20164996 10462377
0.38357097 -0.55166996 0.20267022 10462377
0.50934982 -0.30464077 0.19148329 855567
0.48955378 -0.34475243 0.19267741 855567
0.47060451 -0.38314867 0.19382045 855567
0.4584156 -0.40784645 0.19455573 855567
0.44076163 -0.44361794 0.1956206 855568
0.42939186 -0.46665621 0.19630644 855568
0.41832688 -0.48907661 0.1969738 855568
0.41290465 -0.50006342 0.19730091 855568
0.3969869 -0.52609682 0.19524698 3027251
0.40262079 -0.52037239 0.19760078 2303529
0.38494441 -0.54359603 0.19103113 5264213
0.3675544 -0.56670392 0.19164431 10462377
0.37393931 -0.56312305 0.19372685 9804190
0.506859 -0.29775643 0.18092614 855567
0.5001362 -0.31146753 0.18141142 855567
0.48698649 -0.33828568 0.18236044 855567
0.48055518 -0.35140216 0.18282458 855567
0.46796945 -0.37707031 0.18373302 855567
0.44975394 -0.41422033 0.18504772 855568
0.43803084 -0.43812919 0.1858938 855568
0.42104283 -0.47277558 0.18711981 855568
0.41009659 -0.49510002 0.18790987 855568
0.39943966 -0.51683426 0.18867895 855568
0.3860209 -0.53583151 0.18353803 1776928
0.39039341 -0.53316522 0.18804193 2303529
0.37205824 -0.55943608 0.18259358 5264213
0.35681596 -0.57748783 0.183641 10462377
0.36329272 -0.57349741 0.18628775 10462377
0.49758476 -0.30463421 0.17079353 855567
0.47793004 -0.34498382 0.17244959 855567
0.4591209 -0.38359785 0.17403436 855568
0.44702467 -0.40843046 0.17505348 855568
0.44110391 -0.42058539 0.17555234 855568
0.4295083 -0.44439042 0.17652941 855568
0.41822937 -0.46754515 0.17747965 855568
0.40187696 -0.50111532 0.17885739 855568
0.38324106 -0.52867162 0.17082345 855568
0.39133531 -0.5227567 0.17974555 855568
0.37556696 -0.54797262 0.1756928 1777184
0.36416548 -0.56518197 0.17387283 5264213
0.34797594 -0.5872587 0.17627776 10462377
0.35327539 -0.58518767 0.17704327 9804190
0.5111863 -0.27671123 0.16964751 855567
0.49499848 -0.29770792 0.16003078 855567
0.48832381 -0.31150198 0.16067538 855567
0.47526982 -0.33848023 0.16193607 855568
0.46888629 -0.35167277 0.16255248 855568
0.45639551 -0.37748682 0.16375878 855568
0.45028442 -0.39011633 0.1643489 855568
0.43832111 -0.41484046 0.16550434 855568
0.4266912 -0.43887532 0.16662741 855568
0.4209969 -0.45064354 0.16717735 855568
0.40984154 -0.47369778 0.16825455 855568
0.39898646 -0.49613142 0.16930291 855568
0.38546914 -0.51312327 0.16078717 855568
0.37515703 -0.53457916 0.1619125 855568
0.36569312 -0.55693835 0.16609707 1579548
0.35628247 -0.57092035 0.16516262 5264213
0.33903047 -0.59843284 0.1677108 10462377
0.34388781 -0.59577864 0.16687505 8685965
0.50865471 -0.26948524 0.15871194 855567
0.50177467 -0.28370368 0.15937635 855567
0.46616763 -0.34521818 0.15198034 855568
0.44750321 -0.38405228 0.15401727 855568
0.4355025 -0.40902162 0.15532702 855568
0.4296293 -0.42124164 0.15596795 855568
0.41812813 -0.44517148 0.15722311 855568
0.40694287 -0.46844411 0.15844378 855568
0.38248253 -0.50821877 0.151135 855568
0.37214819 -0.52986836 0.15239519 855568
0.36708313 -0.5404793 0.15301293 855568
0.35715079 -0.56128681 0.15422398 855568
0.34391499 -0.58343178 0.15337647 3290423
0.32716709 -0.60983133 0.15931553 10462377
0.33273035 -0.60754472 0.15857372 7830399
0.31702745 -0.62167865 0.15031485 10462377
0.49917975 -0.27653146 0.14837763 855567
0.49237669 -0.29068613 0.14912012 855568
0.46341252 -0.33867669 0.14126629 855568
0.45707822 -0.35194671 0.1420387 855568
0.44468549 -0.37790847 0.14354992 855568
0.43862316 -0.39060855 0.14428917 855568
0.42675674 -0.41546786 0.14573622 855568
0.415223 -0.43963027 0.14714271 855568
0.40957648 -0.45145917 0.1478312 855568
0.39851579 -0.47463036 0.14917991 855568
0.38474333 -0.49210775 0.1406514 855568
0.37424639 -0.51425099 0.14206859 855568
0.36402783 -0.53580689 0.14344817 855568
0.35407668 -0.55679846 0.1447916 855568
0.34438252 -0.5772481 0.14610037 855568
0.33428791 -0.59271681 0.14458917 3027251
0.3190344 -0.6168673 0.14091751 5264213
0.32673541 -0.61127234 0.14943659 5264213
0.30630556 -0.63263881 0.14215651 10462377
0.31089693 -0.63194883 0.14217792 10462377
0.49654862 -0.2692591 0.13722557 855568
0.48971868 -0.28356743 0.13805845 855568
0.45426407 -0.34545505 0.13126549 855568
0.43574902 -0.38451231 0.13376528 855568
0.42384714 -0.40961909 0.1353721 855568
0.4180229 -0.4219054 0.13615847 855568
0.40661904 -0.44596159 0.13769808 855568
0.39553019 -0.46935308 0.13919505 855568
0.38169479 -0.48697841 0.13068864 855568
0.39009982 -0.4808085 0.13992828 855568
0.37117484 -0.50932646 0.13224924 855568
0.36602089 -0.52027512 0.13301367 855568
0.35591766 -0.54173791 0.13451248 855568
0.34607878 -0.56263876 0.13597187 855568
0.33649385 -0.58300042 0.13739365 855568
0.31935337 -0.60801095 0.13133961 1513755
0.32498473 -0.60257655 0.13606153 2303529
0.31134245 -0.62245548 0.13240838 5264213
0.28923368 -0.64797533 0.13100073 10462377
0.29624513 -0.64443594 0.13318919 10462377
0.30256027 -0.64061582 0.1348545 7830399
0.50791889 -0.23227108 0.12402159 855568
0.48702356 -0.27634919 0.12684265 855568
0.48027134 -0.29059315 0.12775433 855568
0.46707192 -0.3184371 0.12953636 855568
0.4514119 -0.33887577 0.12034681 855568
0.44512856 -0.35222363 0.12127885 855568
0.43283716 -0.378335 0.12310225 855568
0.42682505 -0.39110661 0.12399408 855568
0.41505873 -0.41610241 0.12573949 855568
0.39802667 -0.4522841 0.12826601 855568
0.38706356 -0.47557354 0.12989232 855568
0.37330079 -0.49314046 0.12146115 855568
0.36290103 -0.51539075 0.12314531 855568
0.35277852 -0.53704786 0.12478462 855568
0.34292227 -0.55813503 0.1263805 855568
0.33332214 -0.57867455 0.12793511 855568
0.32235676 -0.59658581 0.12473109 855568
0.30785143 -0.61952436 0.1235159 2237736
0.31300139 -0.61450922 0.12569803 1908514
0.29931849 -0.6373136 0.12460527 5264213
0.27815026 -0.6596154 0.12229785 10462377
0.28541458 -0.65564752 0.12482648 10462377
0.29122126 -0.65303618 0.12636156 10462377
0.4842906 -0.26903033 0.11546952 855568
0.47751245 -0.28342927 0.11647499 855568
0.45778978 -0.32532692 0.11940071 855568
0.44221675 -0.3456949 0.11030057 855568
0.42385626 -0.38497734 0.11327392 855568
0.40628234 -0.42257667 0.11612004 855568
0.39497879 -0.44676042 0.11795062 855568
0.37016383 -0.48798919 0.111323 855568
0.3546378 -0.5214473 0.11405289 855568
0.34463179 -0.54300976 0.1158123 855568
0.33488888 -0.56400549 0.11752546 855568
0.32539886 -0.58445632 0.11919403 855568
0.312886 -0.60021496 0.11133763 855568
0.29934698 -0.62920535 0.11513555 1579548
0.30343664 -0.6253553 0.11901389 2303528
0.29169431 -0.64284909 0.11616802 5264213
0.26985306 -0.6688031 0.11537212 10462377
0.27533311 -0.6664257 0.11674546 10462377
0.28118673 -0.6634196 0.11767415 8685965
0.47471485 -0.27616513 0.10503757 855568
0.46801531 -0.29049873 0.10612255 855568
0.45492062 -0.31851494 0.1082432 855568
0.44852096 -0.33220708 0.10927963 855568
0.43303469 -0.35250437 0.1002686 855568
0.42084792 -0.37876654 0.10241145 855568
0.41488782 -0.39161026 0.10345936 855568
0.40322462 -0.41674423 0.10551018 855568
0.38634533 -0.45311844 0.10847801 855568
0.372318 -0.47120214 0.10004514 855568
0.36173061 -0.49418485 0.10205683 855568
0.35143086 -0.51654315 0.1040138 855568
0.34140724 -0.53830206 0.10591835 855568
0.33164868 -0.55948567 0.10777259 855568
0.30958185 -0.59599793 0.10174412 855568
0.30054852 -0.61575282 0.10359126 855568
0.29123348 -0.63670892 0.1073409 1579548
0.27969658 -0.65380329 0.10452682 3750975
0.26614729 -0.67705673 0.10719102 9804446
0.27175781 -0.67483687 0.10990006 10462377
0.54670936 -0.37677261 0.33385471 10462377
0.55038792 -0.37422669 0.33559999 10462377
0.5366962 -0.386767 0.32644534 10462377
0.54176641 -0.3840673 0.32814884 10462377
0.54609251 -0.37088776 0.31934762 5198420
0.52693987 -0.39832601 0.31764609 10462377
0.53342021 -0.39450133 0.31826466 5198421
0.54830843 -0.34696245 0.30177787 5198421
0.52895421 -0.38350248 0.30052656 5198421
0.53173041 -0.38476956 0.30603054 3750975
0.52497655 -0.40068746 0.30896905 5198421
0.50109649 -0.42235899 0.30005133 10462377
0.53468603 -0.37466872 0.29887119 855567
0.5187971 -0.39460945 0.29206941 2237736
0.52204663 -0.39173353 0.29415712 2303528
0.50812221 -0.41303515 0.29041389 5198421
0.51046157 -0.41831541 0.29927313 5198421
0.49468216 -0.43189487 0.29258642 10462377
0.53143537 -0.36568445 0.28509367 855567
0.52609092 -0.38097847 0.28942275 855567
0.50707352 -0.40715593 0.2826618 2303272
0.51352745 -0.40144765 0.28680435 2303528
0.47825238 -0.44689119 0.28164551 10462377
0.48460594 -0.44353577 0.28321761 9804190
0.49004146 -0.44068325 0.2855463 10462377
0.52812946 -0.35654688 0.27108136 855567
0.50893509 -0.39357233 0.27056322 855567
0.51122206 -0.39933324 0.27975389 855567
0.49689063 -0.41792607 0.2729826 1776927
0.50345743 -0.41251802 0.27846938 2303529
0.48540679 -0.43665743 0.27167791 5263957
0.46852905 -0.45762467 0.2735585 10462377
0.47393471 -0.45560059 0.27456534 9869983
0.48024994 -0.45146632 0.27742493 10462377
0.51937413 -0.36298978 0.26147059 855567
0.50661916 -0.38773918 0.26125684 855567
0.48841286 -0.42566001 0.26404196 1579548
0.49186909 -0.42491269 0.26917598 2303529
0.47707665 -0.44275582 0.26250318 5263957
0.45887893 -0.46827734 0.26553231 10462377
0.46453756 -0.46494782 0.26709741 9869983
0.47053227 -0.46216786 0.26936474 10462377
0.51707768 -0.35683918 0.25191355 855567
0.49800578 -0.39406729 0.2517927 855567
0.48572755 -0.41803384 0.25171483 855567
0.47880065 -0.43859506 0.25895101 2303529
0.46304572 -0.45991135 0.25323424 5263957
0.44947588 -0.47764915 0.25858563 10462377
0.45490357 -0.47584462 0.25773966 9541275
0.52797699 -0.32463682 0.24217638 855567
0.50827944 -0.36331892 0.24226055 855567
0.49560758 -0.38820374 0.24231455 855567
0.48940381 -0.40038681 0.24234107 855567
0.47725162 -0.42425108 0.24239299 855567
0.46542838 -0.44746959 0.24244341 855567
0.45546752 -0.46438962 0.24245813 3750975
0.43979463 -0.48934388 0.24965942 10462377
0.44380212 -0.48844054 0.24771762 8685965
0.42766863 -0.50006461 0.24188554 10462377
0.52567345 -0.31806159 0.23222592 855567
0.51898599 -0.33127499 0.23232669 855567
0.50589794 -0.35713494 0.23252398 855567
0.48695278 -0.39456725 0.23280948 855567
0.47475857 -0.41866112 0.2329933 855567
0.46878687 -0.43046021 0.23308322 855567
0.45708561 -0.45358002 0.23325962 855567
0.44548741 -0.47385594 0.23288734 3290423
0.43557817 -0.49349594 0.23508912 5264213
0.41685972 -0.51333475 0.23173487 10462377
0.42133906 -0.51236987 0.23200834 10462377
0.51662469 -0.32474828 0.22231817 855567
0.49705648 -0.36365175 0.22282836 855567
0.48447052 -0.38867378 0.22315642 855567
0.47830948 -0.40092254 0.22331706 855567
0.46624249 -0.42491281 0.22363165 855567
0.45450389 -0.44825017 0.22393769 855567
0.43445134 -0.48569423 0.22423807 2566700
0.42213324 -0.50993514 0.22620744 5264213
0.40678105 -0.52520847 0.22270326 10462377
0.41251096 -0.52210587 0.22467367 10462377
0.51423192 -0.31813502 0.2121765 855567
0.50758845 -0.33142567 0.21242413 855567
0.49458814 -0.35743392 0.21290874 855567
0.48822716 -0.37015951 0.21314582 855567
0.47577387 -0.39507329 0.21361014 855567
0.46366632 -0.41929543 0.21406138 855567
0.45773774 -0.43115592 0.2142823 855567
0.44612238 -0.45439339 0.21471527 855567
0.43481869 -0.47700739 0.21513665 855567
0.42453948 -0.49591428 0.21605673 2237735
0.41408128 -0.51581311 0.21732402 5264213
0.39717793 -0.53543681 0.21503907 10462377
0.40328437 -0.53228104 0.21700823 10462377
0.50513744 -0.32486129 0.2022239 855567
0.48570314 -0.36398816 0.20317015 855567
0.47320572 -0.38914943 0.20377874 855567
0.46708894 -0.4014641 0.20407647 855567
0.45510986 -0.42558169 0.20465973 855567
0.44345856 -0.4490391 0.20522705 855567
0.43775174 -0.46052861 0.20550492 855568
0.42656755 -0.4830457 0.20604941 855568
0.41547921 -0.50503439 0.20791559 1579292
0.40604004 -0.52168119 0.20845097 5264213
0.38639024 -0.54706037 0.20564756 9804190
0.39239138 -0.54382759 0.20824444 9409432
0.51614648 -0.290869 0.1910733 855567
0.50265354 -0.31820929 0.19188735 855567
0.49605557 -0.33157825 0.19228521 855567
0.48314598 -0.35773635 0.19306394 855567
0.47683021 -0.37053382 0.19344491 855567
0.46446693 -0.39558494 0.19419065 855567
0.45244882 -0.41993666 0.19491562 855568
0.44656476 -0.43185949 0.19527057 855568
0.43503788 -0.45521581 0.19596586 855568
0.42382208 -0.47794199 0.19664234 855568
0.40524071 -0.5144695 0.19860569 1513755
0.38999194 -0.53337979 0.19073355 5264213
0.39291009 -0.53779173 0.19982785 5264213
0.3767499 -0.55680341 0.19739886 9541275
0.38178417 -0.55621004 0.19895674 10462377
0.51368332 -0.28383863 0.18043369 855567
0.49351278 -0.32497549 0.18188941 855567
0.47421682 -0.3643291 0.18328214 855567
0.46181113 -0.38962996 0.18417743 855568
0.45573989 -0.40201223 0.1846157 855568
0.44385156 -0.42625797 0.18547362 855568
0.43229029 -0.44983697 0.18630809 855568
0.42662817 -0.46138453 0.18671671 855568
0.41553286 -0.48401296 0.18751755 855568
0.4047327 -0.5060395 0.18829694 855568
0.39421606 -0.52748764 0.18905595 855568
0.37698907 -0.54939103 0.18224451 5264213
0.38136819 -0.54210752 0.18142024 2237736
0.36719167 -0.56934559 0.18293527 5264213
0.35602683 -0.58052009 0.1811101 10462377
0.53176594 -0.23370743 0.17106062 5263957
0.50433415 -0.29077816 0.17022485 855567
0.49093574 -0.31828415 0.17135373 855567
0.48438483 -0.33173275 0.17190579 855567
0.47156903 -0.35804248 0.17298549 855568
0.46530008 -0.37091231 0.17351371 855568
0.45302969 -0.39610255 0.17454752 855568
0.43526566 -0.43257105 0.17604432 855568
0.42383009 -0.4560473 0.17700776 855568
0.41270468 -0.47888684 0.17794508 855568
0.40725434 -0.49007607 0.17840433 855568
0.38841981 -0.51796901 0.17032337 855568
0.39657107 -0.51200795 0.17930442 855568
0.37813017 -0.53923404 0.17131707 855568
0.3691189 -0.55551058 0.17225379 3750975
0.37240145 -0.55099213 0.17484048 2237736
0.35934871 -0.57505906 0.17427173 5264213
0.34435624 -0.59276438 0.17195755 10462377
0.51814348 -0.26242876 0.16906133 855567
0.48174831 -0.32509136 0.16131034 855568
0.46259543 -0.36467373 0.16316003 855568
0.44426018 -0.40256655 0.16493079 855568
0.43246534 -0.42694223 0.16606981 855568
0.4153809 -0.46224988 0.16771963 855568
0.40437725 -0.4849906 0.16878226 855568
0.39219856 -0.50465095 0.1650148 855568
0.38027883 -0.52392244 0.16135359 855568
0.37010226 -0.5450964 0.1624642 855568
0.35727382 -0.56831086 0.16172159 2303529
0.36133042 -0.56339437 0.16545755 1776927
0.35151786 -0.58075571 0.16561574 5264213
0.32881442 -0.60640568 0.16207965 10462377
0.33467844 -0.60351306 0.16385153 10462377
0.5156408 -0.25504732 0.15803725 855567
0.47907606 -0.31836009 0.15057161 855568
0.47257397 -0.33188879 0.15128127 855568
0.45985511 -0.3583523 0.15266931 855568
0.45363426 -0.37129557 0.15334818 855568
0.44145989 -0.39662623 0.15467685 855568
0.42383835 -0.4332906 0.15659991 855568
0.41249681 -0.45688844 0.15783763 855568
0.40146461 -0.47984242 0.15904155 855568
0.38775465 -0.49717402 0.1504921 855568
0.39606053 -0.49108636 0.15963137 855568
0.37728083 -0.51911592 0.15176934 855568
0.36208448 -0.55095112 0.15362233 855568
0.34837401 -0.57740158 0.15538716 3750975
0.35271406 -0.5719049 0.15758587 1776928
0.33904234 -0.59611785 0.15747106 5264213
0.31853753 -0.61937112 0.15212646 10462377
0.32396504 -0.61488289 0.15533701 10462377
0.33076808 -0.61161554 0.15731531 10462377
0.51310301 -0.24756193 0.14685813 855567
0.50608766 -0.26215839 0.14762375 855567
0.48567629 -0.30462742 0.14985132 855568
0.46984154 -0.32520843 0.14048234 855568
0.45083654 -0.36502254 0.14279985 855568
0.43264747 -0.40312719 0.14501789 855568
0.42094919 -0.42763436 0.14644441 855568
0.40400794 -0.46312463 0.14851016 855568
0.39309859 -0.48597896 0.14984047 855568
0.37945938 -0.50325418 0.14136478 855568
0.36910304 -0.52510059 0.1427629 855568
0.35901952 -0.54637182 0.14412433 855568
0.34919804 -0.56709003 0.14545026 855568
0.33967435 -0.58648318 0.1477987 1513755
0.32353002 -0.60739529 0.14031774 5264213
0.33128148 -0.60176003 0.14888924 5264213
0.30881202 -0.62789398 0.14595664 10462377
0.31437412 -0.62581551 0.14654335 9935776
0.32224768 -0.62065721 0.14997363 5264213
0.51052928 -0.23997068 0.13552073 855568
0.50348455 -0.25472867 0.13637975 855568
0.48299235 -0.29765844 0.13887864 855568
0.47636744 -0.31153703 0.1396865 855568
0.46062016 -0.33204687 0.13040733 855568
0.44800156 -0.3586657 0.13211101 855568
0.44183055 -0.37168348 0.13294414 855568
0.42975527 -0.397156 0.13457441 855568
0.41228083 -0.43401825 0.13693368 855568
0.40103611 -0.45773852 0.13845178 855568
0.37639907 -0.49822843 0.1314742 855568
0.36093557 -0.5310781 0.13376802 855568
0.35096589 -0.55225706 0.13524693 855568
0.34125522 -0.57288575 0.13668734 855568
0.32806095 -0.59789062 0.1397391 2237479
0.33179358 -0.59298539 0.13809088 855568
0.31578773 -0.61302388 0.13175619 5264213
0.29766577 -0.6386404 0.13803691 10462377
0.30400008 -0.6361841 0.13814968 9804190
0.50084484 -0.24719381 0.12497666 855568
0.49388057 -0.26188457 0.12591687 855568
0.47362158 -0.3046205 0.1286521 855568
0.43893763 -0.3653754 0.12219727 855568
0.4208996 -0.40369451 0.12487304 855568
0.4093008 -0.42833412 0.12659359 855568
0.403624 -0.44039357 0.12743574 855568
0.39250708 -0.4640094 0.12908474 855568
0.3786082 -0.4817853 0.12060165 855568
0.36806551 -0.50434136 0.122309 855568
0.35780588 -0.52629173 0.12397042 855568
0.34781784 -0.54766119 0.12558788 855568
0.33809084 -0.56847191 0.12716293 855568
0.32861483 -0.58874571 0.12869745 855568
0.31615192 -0.60438311 0.12081993 855568
0.30564296 -0.62486947 0.12278292 3750975
0.29354298 -0.64863765 0.12779182 8685965
0.27794808 -0.66172731 0.12049162 10462377
0.28170505 -0.6613453 0.1203512 10462377
0.49816731 -0.23955131 0.11341101 855568
0.49117473 -0.25440598 0.11444831 855568
0.47083783 -0.29760838 0.11746511 855568
0.46426436 -0.31157279 0.11844024 855568
0.43600598 -0.35898292 0.11130631 855568
0.42988643 -0.37207568 0.11229739 855568
0.41791335 -0.39769208 0.11423638 855568
0.41205609 -0.41022372 0.11518493 855568
0.40059054 -0.43475425 0.1170418 855568
0.38944563 -0.45859861 0.1188466 855568
0.37548286 -0.47652686 0.11038804 855568
0.3839893 -0.47027254 0.11973026 855568
0.36491764 -0.49929452 0.1122455 855568
0.35974279 -0.51044607 0.11315531 855568
0.34960127 -0.53230083 0.11493856 855568
0.33972812 -0.55357707 0.11667448 855568
0.33011287 -0.57429779 0.1183652 855568
0.31748548 -0.5902307 0.11046365 855568
0.30610412 -0.61493695 0.11262619 855568
0.29524624 -0.63439757 0.11307812 3290167
0.28745466 -0.65197384 0.1169062 5264213
0.26738736 -0.67320424 0.1118651 10462377
0.27291748 -0.67126352 0.1128535 10462377
0.51797158 -0.18789224 0.1032327 10330790
0.52580959 -0.18457124 0.1040706 10462376
0.53297901 -0.18482506 0.1012924 10462376
0.48151904 -0.26160741 0.10393566 855568
0.46141797 -0.30461383 0.107191 855568
0.42689624 -0.36573243 0.10134786 855568
0.40901399 -0.40426826 0.10449222 855568
0.39751786 -0.42904186 0.10651356 855568
0.39189205 -0.44116557 0.10750282 855568
0.38087612 -0.46490455 0.10943976 855568
0.36698765 -0.48277307 0.10105789 855568
0.35654551 -0.50544059 0.10304204 855568
0.34638524 -0.52749598 0.10497254 855568
0.33649546 -0.54896438 0.10685164 855568
0.32686555 -0.56986868 0.10868138 855568
0.31418684 -0.58592737 0.10080245 855568
0.32214487 -0.58011627 0.10957834 855568
0.3050361 -0.60593891 0.10267365 855568
0.29611805 -0.62544179 0.10449719 855568
0.28540832 -0.64505327 0.10544826 2829873
0.2740393 -0.66469377 0.10473602 5264214
0.25715384 -0.68455791 0.10330411 10462633
0.26208022 -0.68251294 0.10380223 9541531
