# .PCD v0.7 - Point Cloud Data file format
VERSION 0.7
FIELDS x y z rgb
SIZE 4 4 4 4
TYPE F F F U
COUNT 1 1 1 1
WIDTH 175
HEIGHT 1
VIEWPOINT 0 0 0 1 0 0 0
POINTS 175
DATA ascii
1.7545576 0.63139462 0.31648642 5311754
1.7438698 0.61496717 0.31455606 5440512
1.7448784 0.59486115 0.31541413 7407360
1.752407 0.59110641 0.31135917 5310211
1.7580802 0.57875115 0.31870961 8391168
1.7626808 0.57708603 0.31954363 5375233
1.7484009 0.6323328 0.3279919 5375233
1.7545422 0.63455391 0.32281417 5310468
1.7375752 0.61518538 0.32543719 5440512
1.7384164 0.59601891 0.32589504 7800832
1.7412697 0.59310955 0.32299069 8259840
1.7554651 0.57788599 0.3263748 9440513
1.7640992 0.57516241 0.32537019 9310728
1.7730169 0.57407367 0.32781377 9442830
1.7461185 0.6336081 0.33543968 5247761
1.7545464 0.63772029 0.33389333 5251360
1.72957 0.61304319 0.33849975 5374976
1.7327582 0.61486846 0.33391166 5506048
1.7342614 0.59468216 0.33440939 7997440
1.7483811 0.57871199 0.33587256 9309184
1.7545116 0.57621777 0.33478817 9578272
1.7633905 0.57413763 0.33557582 9850701
1.7729346 0.57404703 0.33419505 9385781
1.7368921 0.63130349 0.34619558 4916482
1.7424595 0.63332707 0.34102237 5180682
1.7259173 0.61457914 0.34598917 5440512
1.7300032 0.61943787 0.34170514 5374976
1.7271436 0.59625769 0.34598476 7735296
1.7305259 0.59257144 0.34284857 8325376
1.7446593 0.57786918 0.34617102 8459790
1.7540586 0.57489473 0.34455773 9594727
1.7624141 0.57381976 0.34492767 9995910
1.7348838 0.63370293 0.35518333 4853260
1.741169 0.63599873 0.35019204 5121573
1.7189102 0.61391604 0.35811758 5440512
1.7214336 0.61548263 0.35465029 5374976
1.7197793 0.59716421 0.3582986 7866624
1.7237754 0.59388506 0.35394576 7931904
1.7380638 0.57843214 0.35583654 7931904
1.744258 0.57599658 0.35485595 8730162
1.7534037 0.57404888 0.35581508 8681849
1.7629898 0.57400715 0.35299101 9464425
1.727807 0.63215673 0.3641254 4852745
1.7334549 0.6363079 0.36583579 5054238
1.7154441 0.61450672 0.36470601 5374976
1.7167549 0.59522712 0.36540747 7866368
1.7208569 0.59133023 0.36162722 8063232
1.7298191 0.57880855 0.3697511 7604224
1.7348539 0.57775122 0.36495966 8657426
1.7440634 0.57476461 0.36461619 8151649
1.7528254 0.57385957 0.36518347 8683905
1.7180563 0.63065541 0.37808236 4784896
1.7231843 0.63253772 0.37299407 4916996
1.7088754 0.61433947 0.37637085 5506048
1.7116401 0.61672294 0.37281191 5374976
1.7090987 0.59859365 0.37662554 7538688
1.7119473 0.59405774 0.37480789 8063232
1.7265397 0.57848841 0.37605503 8259840
1.7340723 0.5757609 0.37467909 9323071
1.7438631 0.57407099 0.37589836 8946049
1.7555107 0.57473868 0.37366092 9127493
1.7158386 0.63293636 0.38687927 5244418
1.7220443 0.63522553 0.38206571 4987416
1.7047776 0.61501825 0.38438365 5506048
1.7060901 0.59501296 0.38456112 7932160
1.7103096 0.59079099 0.38100627 8522240
1.719431 0.57843417 0.38924131 9374720
1.7250199 0.57719803 0.38428226 8526870
1.7350581 0.57430214 0.38495353 9271416
1.743606 0.57398629 0.38527894 9077121
1.7096572 0.63065618 0.39319649 5374976
1.7134322 0.63436741 0.39560863 5245961
1.6987475 0.61399257 0.39719826 7276288
1.7011905 0.61602634 0.39201623 5506048
1.6989651 0.59790462 0.39747924 9506048
1.7016059 0.59426284 0.39373142 8522240
1.7160246 0.57852471 0.39527825 9309184
1.7240362 0.57553846 0.39427957 8862520
1.7338276 0.57389492 0.39562771 9339779
1.7456776 0.57466829 0.39203405 9259849
1.7104195 0.63402271 0.40571341 5440769
1.6982312 0.61418927 0.40588516 8653312
1.6987439 0.59752023 0.40600768 9965056
1.7009275 0.5921517 0.40499592 10752000
1.7152704 0.57733947 0.40438706 10425608
1.7253984 0.57421702 0.40459672 9390150
1.7347326 0.57419437 0.40522322 9329241
1.7143701 0.63548714 0.41283476 5840927
1.6972165 0.61382192 0.41329694 8850432
1.6981732 0.59578711 0.41352907 9965056
1.7007774 0.59056616 0.41416284 9899520
1.7162071 0.5785864 0.41389704 11605510
1.7247645 0.57587051 0.41471702 11478559
1.717515 0.63200593 0.42598438 11543580
1.7069198 0.61425179 0.42027751 11736582
1.7168776 0.61473829 0.42582622 11738644
1.7063565 0.59558135 0.42013884 11736581
1.7161856 0.59591645 0.42565462 11738386
1.7221378 0.57934469 0.42091811 11474182
1.7279085 0.63115507 0.43167901 11672335
1.7269626 0.61523414 0.43144271 11737098
1.7378407 0.6159749 0.43729508 11610659
1.7267747 0.59492087 0.43139577 11737357
1.7380632 0.59724271 0.43735108 11809839
1.7536932 0.60577661 0.30842438 5374976
1.7461421 0.62332737 0.31717378 5374976
1.7509311 0.62693125 0.3142553 5374976
1.7430248 0.60475117 0.3140412 6227200
1.7483975 0.58738965 0.31695306 8522240
1.7547063 0.58397001 0.31545839 6883072
1.7660002 0.58454043 0.3148376 5374976
1.7395796 0.62286669 0.32790723 5374976
1.7444038 0.62594497 0.32386902 5374976
1.7367388 0.60546154 0.32495877 6751744
1.7455239 0.58551198 0.32539254 8915712
1.7523881 0.58109111 0.3218925 9243648
1.7359022 0.62398732 0.33625782 5309440
1.7410786 0.62811506 0.33290145 5309440
1.7293357 0.60516119 0.33845389 6686208
1.7320365 0.60409737 0.33362511 6751744
1.7374469 0.58762747 0.33638194 8718848
1.7432877 0.58291972 0.33450165 9112320
1.728925 0.62217045 0.34616926 5309440
1.7323139 0.62573373 0.34450328 5243904
1.725533 0.60490727 0.34512809 6751744
1.7350585 0.58513111 0.34534976 8718848
1.7418694 0.58126843 0.34090692 8456704
1.7257961 0.62450445 0.3547073 5112576
1.731811 0.62945676 0.35143378 4850432
1.7189692 0.60529888 0.35680035 6686208
1.7212436 0.60310608 0.35316998 7014144
1.7271905 0.58692724 0.3563785 8653312
1.7333758 0.58223003 0.35443076 8128768
1.7170748 0.62177831 0.36702529 5178112
1.7220253 0.62652254 0.36435804 5047040
1.7142644 0.60500062 0.36523336 6751744
1.7199057 0.587901 0.36763212 8456704
1.7247847 0.58447325 0.36528018 8391168
1.7301714 0.58204734 0.36046371 8784640
1.7150893 0.62492698 0.37433231 5309440
1.7082533 0.60548717 0.37592545 6751744
1.7106711 0.60480094 0.37182963 6751744
1.7168368 0.58659124 0.37549117 8587776
1.7227858 0.58215022 0.37342617 8456704
1.707702 0.62326074 0.38555762 5374976
1.7120174 0.62766701 0.38370121 5243904
1.7036217 0.6047228 0.38456163 6883072
1.7080771 0.58847851 0.38821101 8653312
1.7143067 0.58401495 0.38470709 8718848
1.7041249 0.62515968 0.39538139 5637120
1.6981251 0.60496038 0.39605659 8391168
1.7001176 0.60567033 0.39100254 6817280
1.7065461 0.58579385 0.39586657 9309184
1.7119786 0.58210135 0.39249378 9243648
1.7024939 0.62463874 0.40444669 7407360
1.69745 0.60471982 0.40569833 9309184
1.7059928 0.58467913 0.40466321 11014144
1.698909 0.62056243 0.41370803 8194560
1.7041345 0.62708396 0.41344234 6358272
1.696647 0.60443383 0.41315821 9440256
1.7054 0.58601588 0.41375038 10358272
1.7124084 0.58147538 0.4162257 10751744
1.7073262 0.62517715 0.42037761 11736840
1.7172117 0.62415045 0.42590913 11738901
1.7066298 0.6049121 0.42020616 11736582
1.7165381 0.60532784 0.42574206 11738387
1.7067887 0.58649546 0.42024526 11998466
1.7153918 0.58377945 0.42442742 11474953
1.7276107 0.58118582 0.42537203 10957615
1.7272844 0.62469596 0.43152308 11671304
1.7268085 0.60583466 0.43140414 11737355
1.7377601 0.60497475 0.43727481 11674137
1.7270551 0.58567178 0.4314658 11741474
1.7552305 0.61422384 0.30869478 5374976
1.7568431 0.59735554 0.30897835 5375233
